# .PCD v0.7 - Point Cloud Data file format
VERSION 0.7
FIELDS x y z
SIZE 4 4 4
TYPE F F F
COUNT 1 1 1
WIDTH 1392
HEIGHT 1
VIEWPOINT 0 0 0 1 0 0 0
POINTS 1392
DATA ascii
-0.41492864 -0.24837561 0.91000003
-0.40813926 -0.24946737 0.91400003
-0.39996314 -0.2497403 0.91500002
-0.39219591 -0.25028619 0.91700006
-0.3848092 -0.25110501 0.92000002
-0.3761394 -0.25110501 0.92000002
-0.365872 -0.25001326 0.91600007
-0.3556799 -0.2489215 0.91200006
-0.34670493 -0.24864855 0.91100007
-0.33812001 -0.24864855 0.91100007
-0.32881156 -0.24810266 0.90900004
-0.31883621 -0.2470109 0.90500003
-0.31065071 -0.24728385 0.90600002
-0.30244634 -0.24755679 0.90700006
-0.29389906 -0.24755679 0.90700006
-0.28535178 -0.24755679 0.90700006
-0.27710971 -0.24782974 0.90800005
-0.26914454 -0.24837561 0.91000003
-0.26056901 -0.24837561 0.91000003
-0.25199348 -0.24837561 0.91000003
-0.24315046 -0.24810266 0.90900004
-0.23381013 -0.24728385 0.90600002
-0.224775 -0.24673797 0.90400004
-0.21697369 -0.24755679 0.90700006
-0.20865621 -0.24782974 0.90800005
-0.20009953 -0.24782974 0.90800005
-0.19112094 -0.24728385 0.90600002
-0.18177699 -0.2461921 0.90200007
-0.17270054 -0.24537326 0.89900005
-0.16441134 -0.24564621 0.90000004
-0.15593004 -0.24564621 0.90000004
-0.14728491 -0.24537326 0.89900005
-0.13927627 -0.2461921 0.90200007
-0.13106608 -0.24673797 0.90400004
-0.12281822 -0.24728385 0.90600002
-0.11440651 -0.24755679 0.90700006
-0.10585925 -0.24755679 0.90700006
-0.097097404 -0.2470109 0.90500003
-0.088471122 -0.24673797 0.90400004
-0.079509914 -0.24537326 0.89900005
-0.070405886 -0.24318974 0.89100003
-0.061939813 -0.24291681 0.89000005
-0.053793438 -0.24400857 0.89400005
-0.045470174 -0.24455445 0.89600003
-0.037109219 -0.24510033 0.89800006
-0.02871057 -0.24564621 0.90000004
-0.020251749 -0.24591914 0.90100002
-0.011761027 -0.24591914 0.90100002
-0.0032666768 -0.24564621 0.90000004
0.0052088276 -0.24537326 0.89900005
0.01369592 -0.24564621 0.90000004
0.022127936 -0.24510033 0.89800006
0.030385995 -0.24346268 0.89200002
0.038530972 -0.24182504 0.88600004
0.047039077 -0.24264386 0.88900006
0.05628942 -0.24646503 0.90300006
0.065660104 -0.2497403 0.91500002
0.07452631 -0.25055912 0.91800004
0.082724199 -0.24919443 0.91300005
0.090427719 -0.24673797 0.90400004
0.098399445 -0.24537326 0.89900005
0.1069902 -0.24564621 0.90000004
0.11547149 -0.24564621 0.90000004
0.1239528 -0.24564621 0.90000004
0.13243409 -0.24564621 0.90000004
0.14138512 -0.24646503 0.90300006
0.15022667 -0.2470109 0.90500003
0.15910593 -0.24755679 0.90700006
0.16783804 -0.24782974 0.90800005
0.17639472 -0.24782974 0.90800005
0.18474773 -0.24755679 0.90700006
0.19436055 -0.2489215 0.91200006
0.20362255 -0.2497403 0.91500002
0.21154933 -0.2489215 0.91200006
0.21821262 -0.24673797 0.90400004
0.22547756 -0.24537326 0.89900005
0.2336892 -0.24510033 0.89800006
0.24242133 -0.24537326 0.89900005
0.25145134 -0.24591914 0.90100002
0.25878805 -0.24482737 0.89700001
0.26664522 -0.2442815 0.89500004
0.27477205 -0.24400857 0.89400005
0.28351358 -0.2442815 0.89500004
0.29064298 -0.24318974 0.89100003
0.29702571 -0.2415521 0.88500005
0.30398548 -0.24046035 0.88100004
0.31299666 -0.24100621 0.88300002
0.32422891 -0.24318974 0.89100003
0.33486527 -0.24482737 0.89700001
0.34370106 -0.24510033 0.89800006
0.35137919 -0.24455445 0.89600003
0.36022437 -0.24482737 0.89700001
0.36908841 -0.24510033 0.89800006
0.37713042 -0.24482737 0.89700001
0.38429388 -0.24400857 0.89400005
0.39315793 -0.2442815 0.89500004
0.40248951 -0.24482737 0.89700001
0.41185883 -0.24537326 0.89900005
0.423136 -0.2470109 0.90500003
0.43214136 -0.24728385 0.90600002
0.44116566 -0.24755679 0.90700006
0.44772959 -0.24646503 0.90300006
0.45320764 -0.24482737 0.89700001
0.45908731 -0.24346268 0.89200002
0.46696913 -0.24318974 0.89100003
0.47536564 -0.24318974 0.89100003
0.48539096 -0.24400857 0.89400005
0.49547282 -0.24482737 0.89700001
0.50448763 -0.24510033 0.89800006
0.5146637 -0.24591914 0.90100002
0.52489632 -0.24673797 0.90400004
0.5340054 -0.2470109 0.90500003
0.54193431 -0.24673797 0.90400004
0.54801768 -0.24564621 0.90000004
0.55340737 -0.2442815 0.89500004
0.55870277 -0.24291681 0.89000005
0.56454104 -0.24182504 0.88600004
0.57224381 -0.2415521 0.88500005
0.57992774 -0.24127917 0.88400006
0.5902546 -0.24209797 0.88700002
0.60063803 -0.24291681 0.89000005
0.60970944 -0.24318974 0.89100003
0.61810583 -0.24318974 0.89100003
0.62509608 -0.24264386 0.88900006
0.62991089 -0.24127917 0.88400006
0.6339094 -0.23964152 0.87800002
0.63925773 -0.23854975 0.87400001
0.64897573 -0.23909564 0.87600005
0.66248268 -0.24100621 0.88300002
0.67460221 -0.24237093 0.88800007
0.68297046 -0.24237093 0.88800007
0.6905601 -0.24209797 0.88700002
0.69891888 -0.24209797 0.88700002
0.70727772 -0.24209797 0.88700002
0.71563649 -0.24209797 0.88700002
0.72317904 -0.24182504 0.88600004
0.72987711 -0.24127917 0.88400006
0.73737252 -0.24100621 0.88300002
0.74484915 -0.24073328 0.88200003
0.75145298 -0.24018741 0.88000005
0.75974584 -0.24018741 0.88000005
0.76978415 -0.24073328 0.88200003
0.77897799 -0.24100621 0.88300002
0.78462428 -0.24018741 0.88000005
0.78841192 -0.23882271 0.87500006
0.79392618 -0.23800388 0.87200004
0.80214363 -0.23800388 0.87200004
0.81221968 -0.23854975 0.87400001
0.82045591 -0.23854975 0.87400001
0.8286922 -0.23854975 0.87400001
0.83788615 -0.23882271 0.87500006
0.84709883 -0.23909564 0.87600005
0.85535395 -0.23909564 0.87600005
0.86262327 -0.23882271 0.87500006
-0.92333764 -0.24269876 0.92100006
-0.91465837 -0.24269876 0.92100006
-0.90597916 -0.24269876 0.92100006
-0.8973 -0.24269876 0.92100006
-0.88862085 -0.24269876 0.92100006
-0.87994164 -0.24269876 0.92100006
-0.87126243 -0.24269876 0.92100006
-0.86258322 -0.24269876 0.92100006
-0.85390401 -0.24269876 0.92100006
-0.83696526 -0.2403271 0.91200006
-0.82473773 -0.23927304 0.90800005
-0.81438327 -0.23874599 0.90600002
-0.80584538 -0.23874599 0.90600002
-0.79554749 -0.23821896 0.90400004
-0.78702849 -0.23821896 0.90400004
-0.78109306 -0.23900953 0.90700006
-0.77595294 -0.24006359 0.91100007
-0.7698949 -0.24085413 0.91400003
-0.76044875 -0.24059062 0.91300005
-0.75431544 -0.24138117 0.91600007
-0.74893957 -0.24243523 0.92000002
-0.74026978 -0.24243523 0.92000002
-0.72921437 -0.24164468 0.91700006
-0.71742976 -0.24059062 0.91300005
-0.70727324 -0.24006359 0.91100007
-0.701756 -0.24111764 0.91500002
-0.69995105 -0.2434893 0.92400002
-0.69423598 -0.24454336 0.92800003
-0.68327481 -0.24375282 0.92500007
-0.6694532 -0.24190819 0.91800004
-0.6550436 -0.23980007 0.91000003
-0.64362645 -0.23874599 0.90600002
-0.6322847 -0.23769194 0.90200007
-0.62378454 -0.23769194 0.90200007
-0.62074143 -0.23980007 0.91000003
-0.62360197 -0.24427985 0.92700005
-0.6221624 -0.24717852 0.93800002
-0.61593848 -0.24823259 0.94200003
-0.60512811 -0.24744205 0.93900007
-0.58992904 -0.24480687 0.92900002
-0.57179064 -0.24085413 0.91400003
-0.55763185 -0.23848248 0.90500003
-0.55031693 -0.23900953 0.90700006
-0.54296434 -0.23953655 0.90900004
-0.53322244 -0.23900953 0.90700006
-0.52467519 -0.23900953 0.90700006
-0.51726598 -0.23953655 0.90900004
-0.50814027 -0.23927304 0.90800005
-0.49353132 -0.23637435 0.89700001
-0.48075214 -0.23426622 0.88900006
-0.47131175 -0.23373918 0.88700002
-0.46295297 -0.23373918 0.88700002
-0.45766923 -0.2353203 0.89300007
-0.45327854 -0.23742841 0.90100002
-0.44824347 -0.23927304 0.90800005
-0.44065523 -0.23980007 0.91000003
-0.43018043 -0.23874599 0.90600002
-0.4188503 -0.2371649 0.90000004
-0.41082495 -0.23742841 0.90100002
-0.40501347 -0.23900953 0.90700006
-0.39690334 -0.23927304 0.90800005
-0.38962975 -0.24006359 0.91100007
-0.38229957 -0.24085413 0.91400003
-0.37368634 -0.24085413 0.91400003
-0.36187774 -0.23874599 0.90600002
-0.35138988 -0.23742841 0.90100002
-0.3425186 -0.2371649 0.90000004
-0.3340373 -0.2371649 0.90000004
-0.32447082 -0.23637435 0.89700001
-0.31496087 -0.23558381 0.89400005
-0.30585036 -0.23505676 0.89200002
-0.29777792 -0.2353203 0.89300007
-0.29098275 -0.23663788 0.89800006
-0.2834641 -0.23742841 0.90100002
-0.2752786 -0.23769194 0.90200007
-0.26618692 -0.2371649 0.90000004
-0.25684658 -0.23637435 0.89700001
-0.2486705 -0.23663788 0.89800006
-0.24047554 -0.23690139 0.89900005
-0.23174559 -0.23663788 0.89800006
-0.22303449 -0.23637435 0.89700001
-0.21505991 -0.23690139 0.89900005
-0.20681782 -0.2371649 0.90000004
-0.19811615 -0.23690139 0.89900005
-0.18985523 -0.2371649 0.90000004
-0.1811724 -0.23690139 0.89900005
-0.17212422 -0.23611084 0.89600003
-0.16368061 -0.23611084 0.89600003
-0.15558353 -0.23663788 0.89800006
-0.14712109 -0.23663788 0.89800006
-0.13865863 -0.23663788 0.89800006
-0.13048615 -0.2371649 0.90000004
-0.12200485 -0.2371649 0.90000004
-0.11339741 -0.23690139 0.89900005
-0.10469211 -0.23637435 0.89700001
-0.096239083 -0.23637435 0.89700001
-0.087394595 -0.2353203 0.89300007
-0.078360163 -0.23347567 0.88600004
-0.069536678 -0.23189457 0.88000005
-0.061243862 -0.23189457 0.88000005
-0.053071376 -0.23242161 0.88200003
-0.044911947 -0.23321216 0.88500005
-0.036695976 -0.23400271 0.88800007
-0.028423466 -0.23479325 0.89100003
-0.020094411 -0.23558381 0.89400005
-0.011734921 -0.23690139 0.89900005
-0.0032739362 -0.23769194 0.90200007
0.0052435915 -0.23848248 0.90500003
0.013802444 -0.23900953 0.90700006
0.022251142 -0.23795545 0.90300006
0.030385995 -0.23505676 0.89200002
0.038530972 -0.23347567 0.88600004
0.046933249 -0.23373918 0.88700002
0.0559154 -0.23637435 0.89700001
0.065229543 -0.23953655 0.90900004
0.074120387 -0.24059062 0.91300005
0.081999339 -0.23848248 0.90500003
0.089427419 -0.23558381 0.89400005
0.097195446 -0.23400271 0.88800007
0.10580142 -0.23452973 0.89000005
0.11444508 -0.23505676 0.89200002
0.12285099 -0.23505676 0.89200002
0.13169834 -0.23584732 0.89500004
0.14091539 -0.2371649 0.90000004
0.14956269 -0.23742841 0.90100002
0.1580534 -0.23742841 0.90100002
0.16654412 -0.23742841 0.90100002
0.17484058 -0.2371649 0.90000004
0.18311819 -0.23690139 0.89900005
0.19222942 -0.23769194 0.90200007
0.2016197 -0.23874599 0.90600002
0.20876577 -0.2371649 0.90000004
0.21579877 -0.23558381 0.89400005
0.22322027 -0.23452973 0.89000005
0.23108688 -0.23400271 0.88800007
0.23864613 -0.23321216 0.88500005
0.24698606 -0.23321216 0.88500005
0.25561452 -0.23347567 0.88600004
0.26336804 -0.23294865 0.88400006
0.27046913 -0.23189457 0.88000005
0.27812839 -0.23136753 0.87800002
0.2850976 -0.23031346 0.87400001
0.29266262 -0.22978644 0.87200004
0.30053502 -0.22952293 0.87100005
0.31016091 -0.23057699 0.87500006
0.32277334 -0.23373918 0.88700002
0.33486527 -0.23637435 0.89700001
0.34255284 -0.23584732 0.89500004
0.34981054 -0.23505676 0.89200002
0.3582164 -0.23505676 0.89200002
0.36703336 -0.2353203 0.89300007
0.37460783 -0.23479325 0.89100003
0.38214457 -0.23426622 0.88900006
0.39052224 -0.23426622 0.88900006
0.39979726 -0.23479325 0.89100003
0.40911004 -0.2353203 0.89300007
0.41752535 -0.2353203 0.89300007
0.42546371 -0.23505676 0.89200002
0.43289682 -0.23452973 0.89000005
0.44227549 -0.23505676 0.89200002
0.44866043 -0.23400271 0.88800007
0.45291126 -0.23189457 0.88000005
0.45910773 -0.2308405 0.87600005
0.46896341 -0.23163106 0.87900007
0.48050448 -0.23321216 0.88500005
0.49326336 -0.2353203 0.89300007
0.50280225 -0.23584732 0.89500004
0.51123643 -0.23584732 0.89500004
0.51967061 -0.23584732 0.89500004
0.52869487 -0.23611084 0.89600003
0.53534001 -0.2353203 0.89300007
0.54071081 -0.23400271 0.88800007
0.54475069 -0.23215809 0.88100004
0.54865867 -0.23031346 0.87400001
0.55498338 -0.22952293 0.87100005
0.56125158 -0.22873236 0.86800003
0.56680721 -0.2276783 0.86400002
0.57628018 -0.22820534 0.86600006
0.58376622 -0.22794183 0.86500007
0.59191769 -0.22794183 0.86500007
0.602844 -0.22899589 0.86900002
0.61314261 -0.22978644 0.87200004
0.62136006 -0.22978644 0.87200004
0.62813354 -0.22925942 0.87000006
0.63486928 -0.22873236 0.86800003
0.643049 -0.22873236 0.86800003
0.65422982 -0.22978644 0.87200004
0.66472626 -0.23057699 0.87500006
0.67220283 -0.23031346 0.87400001
0.67966062 -0.23004995 0.87300003
0.6886754 -0.23031346 0.87400001
0.69691169 -0.23031346 0.87400001
0.70514798 -0.23031346 0.87400001
0.71338427 -0.23031346 0.87400001
0.72079492 -0.23004995 0.87300003
0.72818673 -0.22978644 0.87200004
0.73387063 -0.22899589 0.86900002
0.74035197 -0.22846885 0.86700004
0.74852228 -0.22846885 0.86700004
0.75931096 -0.22925942 0.87000006
0.76839167 -0.22952293 0.87100005
0.7730332 -0.22846885 0.86700004
0.77579731 -0.22688776 0.86100006
0.78209013 -0.22636072 0.85900003
0.79110491 -0.22662424 0.86000001
0.80292654 -0.2276783 0.86400002
0.81388479 -0.22846885 0.86700004
0.8220551 -0.22846885 0.86700004
0.82831031 -0.22794183 0.86500007
0.83356071 -0.22715127 0.86200005
0.83875465 -0.22636072 0.85900003
0.8448779 -0.2258337 0.85700005
-0.90930212 -0.23046228 0.90700006
-0.90075481 -0.23046228 0.90700006
-0.8922075 -0.23046228 0.90700006
-0.88366032 -0.23046228 0.90700006
-0.87511301 -0.23046228 0.90700006
-0.86656576 -0.23046228 0.90700006
-0.85801846 -0.23046228 0.90700006
-0.84947121 -0.23046228 0.90700006
-0.84092391 -0.23046228 0.90700006
-0.82962346 -0.2297 0.90400004
-0.81656301 -0.22842953 0.89900005
-0.80539447 -0.22766724 0.89600003
-0.7960614 -0.22741316 0.89500004
-0.78850728 -0.22766724 0.89600003
-0.7826755 -0.22842953 0.89900005
-0.7742036 -0.22842953 0.89900005
-0.7665835 -0.22868362 0.90000004
-0.75810224 -0.22868362 0.90000004
-0.75045383 -0.22893772 0.90100002
-0.74772751 -0.23071636 0.90800005
-0.74649739 -0.2330032 0.91700006
-0.74026978 -0.23376547 0.92000002
-0.73000962 -0.23325729 0.91800004
-0.71585822 -0.23147865 0.91100007
-0.70572048 -0.23097046 0.90900004
-0.69792128 -0.23122455 0.91000003
-0.69086081 -0.23173274 0.91200006
-0.68077022 -0.23122455 0.91000003
-0.66850126 -0.22995408 0.90500003
-0.65559739 -0.22842953 0.89900005
-0.64784533 -0.22868362 0.90000004
-0.64007443 -0.22893772 0.90100002
-0.63158369 -0.22893772 0.90100002
-0.6258592 -0.22995408 0.90500003
-0.62278783 -0.23198684 0.91300005
-0.61822027 -0.23351139 0.91900003
-0.60956001 -0.23351139 0.91900003
-0.59893805 -0.23274912 0.91600007
-0.58643931 -0.23122455 0.91000003
-0.57468873 -0.22995408 0.90500003
-0.56303233 -0.22868362 0.90000004
-0.55270249 -0.22792134 0.89700001
-0.54606974 -0.22868362 0.90000004
-0.54057509 -0.22995408 0.90500003
-0.53263456 -0.23020817 0.90600002
-0.52120429 -0.22893772 0.90100002
-0.50986832 -0.22766724 0.89600003
-0.49974588 -0.22690497 0.89300007
-0.48857954 -0.22563452 0.88800007
-0.47858903 -0.22487223 0.88500005
-0.46918634 -0.22436404 0.88300002
-0.46086523 -0.22436404 0.88300002
-0.45459417 -0.22538041 0.88700002
-0.4512662 -0.22792134 0.89700001
-0.44626883 -0.2297 0.90400004
-0.43823406 -0.22995408 0.90500003
-0.42733157 -0.22868362 0.90000004
-0.41559258 -0.22690497 0.89300007
-0.40672126 -0.22665088 0.89200002
-0.4009946 -0.22817545 0.89800006
-0.39340636 -0.22868362 0.90000004
-0.38406971 -0.22817545 0.89800006
-0.37267935 -0.22639678 0.89100003
-0.36019439 -0.22385585 0.88100004
-0.35069388 -0.22309357 0.87800002
-0.34163991 -0.22258539 0.87600005
-0.3341459 -0.22309357 0.87800002
-0.32847002 -0.22487223 0.88500005
-0.32121527 -0.22563452 0.88800007
-0.31284705 -0.22563452 0.88800007
-0.30413595 -0.22538041 0.88700002
-0.29611063 -0.22563452 0.88800007
-0.28936258 -0.22690497 0.89300007
-0.28189105 -0.22766724 0.89600003
-0.27314228 -0.22741316 0.89500004
-0.26204622 -0.22512633 0.88600004
-0.25197881 -0.22360177 0.88000005
-0.24396293 -0.22385585 0.88100004
-0.23726562 -0.22538041 0.88700002
-0.22942297 -0.22588861 0.88900006
-0.22129397 -0.22614269 0.89000005
-0.2138638 -0.22715907 0.89400005
-0.20543905 -0.22715907 0.89400005
-0.19679391 -0.22690497 0.89300007
-0.18901144 -0.22766724 0.89600003
-0.1811724 -0.22842953 0.89900005
-0.17270054 -0.22842953 0.89900005
-0.16441134 -0.22868362 0.90000004
-0.15593004 -0.22868362 0.90000004
-0.14744875 -0.22868362 0.90000004
-0.13927627 -0.22919181 0.90200007
-0.13077612 -0.22919181 0.90200007
-0.12159817 -0.22792134 0.89700001
-0.11251445 -0.22665088 0.89200002
-0.10387512 -0.22614269 0.89000005
-0.095380768 -0.22588861 0.88900006
-0.086513802 -0.22461814 0.88400006
-0.077652618 -0.22309357 0.87800002
-0.069062561 -0.22207721 0.87400001
-0.060756691 -0.22182311 0.87300003
-0.052590001 -0.22207721 0.87400001
-0.044455215 -0.22258539 0.87600005
-0.036200084 -0.22258539 0.87600005
-0.028072558 -0.22360177 0.88000005
-0.019937072 -0.22538041 0.88700002
-0.011695761 -0.22766724 0.89600003
-0.003284825 -0.22995408 0.90500003
0.0052725617 -0.23122455 0.91000003
0.013832879 -0.23097046 0.90900004
0.022251142 -0.2294459 0.90300006
0.030351929 -0.22639678 0.89100003
0.038443998 -0.22461814 0.88400006
0.04666869 -0.22410995 0.88200003
0.05516737 -0.22487223 0.88500005
0.064009629 -0.22665088 0.89200002
0.072415538 -0.22665088 0.89200002
0.080187201 -0.22487223 0.88500005
0.087826923 -0.22309357 0.87800002
0.095772542 -0.2223313 0.87500006
0.104256 -0.22283949 0.87700003
0.11303376 -0.22385585 0.88100004
0.12174919 -0.22461814 0.88400006
0.13110974 -0.22639678 0.89100003
0.14013253 -0.22741316 0.89500004
0.14790273 -0.22639678 0.89100003
0.15577295 -0.22563452 0.88800007
0.16377148 -0.22512633 0.88600004
0.17173231 -0.22461814 0.88400006
0.17985913 -0.22436404 0.88300002
0.18796711 -0.22410995 0.88200003
0.19583371 -0.22360177 0.88000005
0.20482242 -0.22436404 0.88300002
0.21290213 -0.22410995 0.88200003
0.21995975 -0.22283949 0.87700003
0.22744361 -0.22207721 0.87400001
0.23541024 -0.22182311 0.87300003
0.24391615 -0.22207721 0.87400001
0.25272948 -0.22258539 0.87600005
0.26009083 -0.22182311 0.87300003
0.26801032 -0.22156902 0.87200004
0.27591097 -0.22131494 0.87100005
0.28379282 -0.22106084 0.87000006
0.29199138 -0.22106084 0.87000006
0.30018997 -0.22106084 0.87000006
0.3090975 -0.22156902 0.87200004
0.32058999 -0.22385585 0.88100004
0.33225206 -0.22614269 0.89000005
0.34025639 -0.22588861 0.88900006
0.34706539 -0.22487223 0.88500005
0.35420054 -0.22410995 0.88200003
0.36210123 -0.22385585 0.88100004
0.36872172 -0.22283949 0.87700003
0.37569669 -0.22207721 0.87400001
0.38437226 -0.2223313 0.87500006
0.39486152 -0.22360177 0.88000005
0.40407059 -0.22410995 0.88200003
0.41191471 -0.22385585 0.88100004
0.41830903 -0.22283949 0.87700003
0.42560083 -0.2223313 0.87500006
0.43483815 -0.22283949 0.87700003
0.44158691 -0.22207721 0.87400001
0.44570586 -0.22004446 0.86600006
0.45229447 -0.21928218 0.86300004
0.46309468 -0.22055265 0.86800003
0.47670385 -0.22309357 0.87800002
0.48884442 -0.22487223 0.88500005
0.49662259 -0.22461814 0.88400006
0.50209701 -0.22334768 0.87900007
0.51038039 -0.22334768 0.87900007
0.51984394 -0.22385585 0.88100004
0.5275467 -0.22360177 0.88000005
0.53340393 -0.22258539 0.87600005
0.53856736 -0.22131494 0.87100005
0.54426438 -0.22029856 0.86700004
0.54924875 -0.2190281 0.86200005
0.55413896 -0.21775763 0.85700005
0.55893493 -0.21648717 0.85200006
0.56563294 -0.21597898 0.85000002
0.57499284 -0.21648717 0.85200006
0.5843904 -0.21699534 0.85400003
0.59521306 -0.21801172 0.85800004
0.60751742 -0.21953627 0.86400002
0.61922234 -0.22080673 0.86900002
0.62741148 -0.22080673 0.86900002
0.63486928 -0.22055265 0.86800003
0.64082652 -0.21979038 0.86500007
0.64747745 -0.21928218 0.86300004
0.65636969 -0.21953627 0.86400002
0.66528088 -0.21979038 0.86500007
0.67421091 -0.22004446 0.86600006
0.6823718 -0.22004446 0.86600006
0.69053268 -0.22004446 0.86600006
0.69869357 -0.22004446 0.86600006
0.70685446 -0.22004446 0.86600006
0.715841 -0.22029856 0.86700004
0.72317624 -0.22004446 0.86600006
0.72795916 -0.2190281 0.86200005
0.73181272 -0.21775763 0.85700005
0.73902547 -0.21750355 0.85600007
0.74796492 -0.21775763 0.85700005
0.75692314 -0.21801172 0.85800004
0.76411706 -0.21775763 0.85700005
0.76858896 -0.21674126 0.85300004
0.77480638 -0.21623306 0.85100001
0.78558564 -0.21699534 0.85400003
0.7973507 -0.21801172 0.85800004
0.80825239 -0.21877401 0.86100006
0.81541795 -0.2185199 0.86000001
0.81969202 -0.21750355 0.85600007
0.82195663 -0.21597898 0.85000002
0.82606101 -0.2149626 0.84600002
0.83206177 -0.21445441 0.84400004
-0.89827412 -0.21922363 0.89600003
-0.88983047 -0.21922363 0.89600003
-0.88138688 -0.21922363 0.89600003
-0.87294334 -0.21922363 0.89600003
-0.86449969 -0.21922363 0.89600003
-0.85605609 -0.21922363 0.89600003
-0.8476125 -0.21922363 0.89600003
-0.83916885 -0.21922363 0.89600003
-0.83072525 -0.21922363 0.89600003
-0.81952852 -0.21848963 0.89300007
-0.80838829 -0.21775563 0.89000005
-0.8009001 -0.21800029 0.89100003
-0.79517198 -0.21873431 0.89400005
-0.79026735 -0.21971299 0.89800006
-0.78354609 -0.22020231 0.90000004
-0.77075887 -0.21897897 0.89500004
-0.75636244 -0.21726629 0.88800007
-0.74378246 -0.21604294 0.88300002
-0.73629433 -0.21628761 0.88400006
-0.73208123 -0.21751095 0.88900006
-0.73184425 -0.21995765 0.89900005
-0.73061413 -0.22215967 0.90800005
-0.72126222 -0.22191501 0.90700006
-0.70878607 -0.22069167 0.90200007
-0.70028591 -0.22069167 0.90200007
-0.69255269 -0.22093633 0.90300006
-0.68252802 -0.22044697 0.90100002
-0.67104489 -0.2194683 0.89700001
-0.65815979 -0.21800029 0.89100003
-0.64976341 -0.21800029 0.89100003
-0.64568585 -0.2194683 0.89700001
-0.64149529 -0.22093633 0.90300006
-0.63719153 -0.22240435 0.90900004
-0.63346636 -0.22411703 0.91600007
-0.62688065 -0.22485103 0.91900003
-0.61418402 -0.22338302 0.91300005
-0.59629428 -0.21995765 0.89900005
-0.58259147 -0.21800029 0.89100003
-0.57290614 -0.21751095 0.88900006
-0.56516349 -0.21775563 0.89000005
-0.55740201 -0.21800029 0.89100003
-0.54900551 -0.21800029 0.89100003
-0.54000229 -0.21775563 0.89000005
-0.53221256 -0.21800029 0.89100003
-0.52499193 -0.21848963 0.89300007
-0.51426268 -0.21751095 0.88900006
-0.50303978 -0.21628761 0.88400006
-0.49303037 -0.2155536 0.88100004
-0.4847281 -0.2155536 0.88100004
-0.47480354 -0.2148196 0.87800002
-0.46493551 -0.21408559 0.87500006
-0.45564592 -0.21359624 0.87300003
-0.4484441 -0.21408559 0.87500006
-0.44472614 -0.21628761 0.88400006
-0.43886393 -0.21751095 0.88900006
-0.43048629 -0.21751095 0.88900006
-0.42020938 -0.21653228 0.88500005
-0.4095425 -0.21530893 0.88000005
-0.40170565 -0.2155536 0.88100004
-0.39563608 -0.21677695 0.88600004
-0.38684961 -0.21653228 0.88500005
-0.37850967 -0.21653228 0.88500005
-0.36556873 -0.2138409 0.87400001
-0.35365283 -0.2116389 0.86500007
-0.3443031 -0.21090488 0.86200005
-0.3350099 -0.21017088 0.85900003
-0.32843727 -0.21114956 0.86300004
-0.32438734 -0.2138409 0.87400001
-0.3179597 -0.21506427 0.87900007
-0.3107332 -0.21579827 0.88200003
-0.30413595 -0.21702161 0.88700002
-0.29677755 -0.21775563 0.89000005
-0.28903854 -0.21824495 0.89200002
-0.27968878 -0.21751095 0.88900006
-0.26886967 -0.2155536 0.88100004
-0.25731403 -0.21286224 0.87000006
-0.24768373 -0.2116389 0.86500007
-0.24036302 -0.2123729 0.86800003
-0.23271826 -0.21286224 0.87000006
-0.22529386 -0.21359624 0.87300003
-0.21880753 -0.21530893 0.88000005
-0.21242848 -0.21726629 0.88800007
-0.20451985 -0.21775563 0.89000005
-0.19635317 -0.21800029 0.89100003
-0.18837859 -0.21848963 0.89300007
-0.17996325 -0.21848963 0.89300007
-0.17193213 -0.21897897 0.89500004
-0.16459401 -0.22044697 0.90100002
-0.15662307 -0.22118099 0.90400004
-0.14794025 -0.22093633 0.90300006
-0.13927627 -0.22069167 0.90200007
-0.13019618 -0.21971299 0.89800006
-0.12064925 -0.21775563 0.89000005
-0.11137921 -0.21604294 0.88300002
-0.1029414 -0.21579827 0.88200003
-0.094415158 -0.21530893 0.88000005
-0.085828729 -0.21457492 0.87700003
-0.07703352 -0.21310692 0.87100005
-0.068667471 -0.21261756 0.86900002
-0.060478311 -0.21261756 0.86900002
-0.052409489 -0.21310692 0.87100005
-0.044201475 -0.21310692 0.87100005
-0.03595214 -0.21286224 0.87000006
-0.027817354 -0.21335158 0.87200004
-0.019712303 -0.21457492 0.87700003
-0.011526068 -0.21604294 0.88300002
-0.0032303804 -0.21775563 0.89000005
0.0051798574 -0.21873431 0.89400005
0.013574178 -0.21824495 0.89200002
0.021832239 -0.21677695 0.88600004
0.029909084 -0.2148196 0.87800002
0.0380526 -0.21408559 0.87500006
0.046139564 -0.21335158 0.87200004
0.054419339 -0.21359624 0.87300003
0.062789716 -0.21408559 0.87500006
0.070954241 -0.2138409 0.87400001
0.078918703 -0.21310692 0.87100005
0.086726584 -0.21212824 0.86700004
0.094459087 -0.21114956 0.86300004
0.10271059 -0.21139422 0.86400002
0.11136584 -0.2123729 0.86800003
0.12009649 -0.21335158 0.87200004
0.12890251 -0.21433026 0.87600005
0.13825366 -0.21604294 0.88300002
0.1442508 -0.21261756 0.86900002
0.15226454 -0.2123729 0.86800003
0.16099882 -0.21310692 0.87100005
0.16940109 -0.21335158 0.87200004
0.17761853 -0.21335158 0.87200004
0.18562286 -0.21310692 0.87100005
0.19360833 -0.21286224 0.87000006
0.20180692 -0.21286224 0.87000006
0.20928134 -0.21212824 0.86700004
0.21669923 -0.21139422 0.86400002
0.22510153 -0.2116389 0.86500007
0.2337923 -0.21212824 0.86700004
0.24224168 -0.2123729 0.86800003
0.25070992 -0.21261756 0.86900002
0.25860119 -0.2123729 0.86800003
0.26708826 -0.21261756 0.86900002
0.27622774 -0.21335158 0.87200004
0.28575 -0.21433026 0.87600005
0.2940051 -0.21433026 0.87600005
0.3012251 -0.21359624 0.87300003
0.30838856 -0.21286224 0.87000006
0.31804273 -0.2138409 0.87400001
0.32889223 -0.2155536 0.88100004
0.33795995 -0.21604294 0.88300002
0.34471241 -0.21506427 0.87900007
0.35018468 -0.21335158 0.87200004
0.35511401 -0.21139422 0.86400002
0.36199477 -0.21066022 0.86100006
0.36924881 -0.21017088 0.85900003
0.377783 -0.21041554 0.86000001
0.38633609 -0.21066022 0.86100006
0.39582425 -0.21139422 0.86400002
0.40443385 -0.2116389 0.86500007
0.41163138 -0.21114956 0.86300004
0.41927761 -0.21090488 0.86200005
0.42690498 -0.21066022 0.86100006
0.43350297 -0.2099262 0.85800004
0.44004446 -0.2091922 0.85500002
0.4486258 -0.20943688 0.85600007
0.46042711 -0.21114956 0.86300004
0.47236034 -0.21286224 0.87000006
0.48166364 -0.21335158 0.87200004
0.48819572 -0.21261756 0.86900002
0.4941 -0.2116389 0.86500007
0.50283211 -0.21188356 0.86600006
0.51335329 -0.21286224 0.87000006
0.52275079 -0.21335158 0.87200004
0.52975047 -0.21286224 0.87000006
0.53671235 -0.2123729 0.86800003
0.54300886 -0.2116389 0.86500007
0.54797435 -0.21041554 0.86000001
0.55090594 -0.2084582 0.85200006
0.55434269 -0.20674551 0.84500003
0.56164026 -0.20650084 0.84400004
0.57026869 -0.20674551 0.84500003
0.57891601 -0.20699017 0.84600002
0.58896953 -0.20772418 0.84900004
0.60189229 -0.20943688 0.85600007
0.61352181 -0.21066022 0.86100006
0.62307954 -0.21114956 0.86300004
0.63121217 -0.21114956 0.86300004
0.63786316 -0.21066022 0.86100006
0.64447635 -0.21017088 0.85900003
0.6518116 -0.2099262 0.85800004
0.66066617 -0.21017088 0.85900003
0.66953963 -0.21041554 0.86000001
0.67843199 -0.21066022 0.86100006
0.6857484 -0.21041554 0.86000001
0.69304591 -0.21017088 0.85900003
0.70114082 -0.21017088 0.85900003
0.70923579 -0.21017088 0.85900003
0.71733069 -0.21017088 0.85900003
0.72204763 -0.2091922 0.85500002
0.72498131 -0.20772418 0.84900004
0.73125535 -0.20723486 0.84700006
0.73923719 -0.20723486 0.84700006
0.74898338 -0.20772418 0.84900004
0.75698406 -0.20772418 0.84900004
0.76408374 -0.20747952 0.84800005
0.77025408 -0.20699017 0.84600002
0.78006631 -0.20747952 0.84800005
0.79084545 -0.20821352 0.85100001
0.80074251 -0.20870286 0.85300004
0.80498821 -0.20772418 0.84900004
0.80915856 -0.20674551 0.84500003
0.81325352 -0.20576683 0.84100002
0.81922603 -0.20527749 0.83900005
0.82614666 -0.20503283 0.83800006
-0.8902539 -0.20889807 0.88800007
-0.88188559 -0.20889807 0.88800007
-0.87351739 -0.20889807 0.88800007
-0.8651492 -0.20889807 0.88800007
-0.85678101 -0.20889807 0.88800007
-0.84841275 -0.20889807 0.88800007
-0.84004456 -0.20889807 0.88800007
-0.8316763 -0.20889807 0.88800007
-0.81959951 -0.20795709 0.88400006
-0.80759805 -0.2070161 0.88000005
-0.80021358 -0.20725134 0.88100004
-0.79910237 -0.20913331 0.88900006
-0.79695088 -0.21078002 0.89600003
-0.79026735 -0.21125053 0.89800006
-0.77919304 -0.21054478 0.89500004
-0.7655918 -0.20913331 0.88900006
-0.74954838 -0.2070161 0.88000005
-0.73620147 -0.20560461 0.87400001
-0.72463357 -0.20466365 0.87000006
-0.71643496 -0.20466365 0.87000006
-0.71312076 -0.20607512 0.87600005
-0.71291202 -0.20842758 0.88600004
-0.71092439 -0.21030954 0.89400005
-0.70485705 -0.21101527 0.89700001
-0.69873315 -0.211721 0.90000004
-0.69025183 -0.211721 0.90000004
-0.6817705 -0.211721 0.90000004
-0.67104489 -0.21101527 0.89700001
-0.65815979 -0.2096038 0.89100003
-0.64903414 -0.20936856 0.89000005
-0.64568585 -0.21101527 0.89700001
-0.64504731 -0.21360298 0.90800005
-0.64209843 -0.21548495 0.91600007
-0.63692415 -0.21666117 0.92100006
-0.62824494 -0.21666117 0.92100006
-0.61283863 -0.21430872 0.91100007
-0.59430438 -0.21078002 0.89600003
-0.57801449 -0.20795709 0.88400006
-0.56968397 -0.20795709 0.88400006
-0.56135339 -0.20795709 0.88400006
-0.5517717 -0.20748658 0.88200003
-0.54222769 -0.2070161 0.88000005
-0.53272134 -0.20654561 0.87800002
-0.52325279 -0.20607512 0.87600005
-0.51382184 -0.20560461 0.87400001
-0.50500709 -0.20536938 0.87300003
-0.49621117 -0.20513414 0.87200004
-0.48687449 -0.20466365 0.87000006
-0.47757548 -0.20419315 0.86800003
-0.46561033 -0.20254643 0.86100006
-0.4548398 -0.20137021 0.85600007
-0.4483389 -0.20207594 0.85900003
-0.44331902 -0.20348743 0.86500007
-0.43768296 -0.20466365 0.87000006
-0.4294844 -0.20466365 0.87000006
-0.42080152 -0.20442839 0.86900002
-0.41166276 -0.2039579 0.86700004
-0.40302706 -0.20372267 0.86600006
-0.3930423 -0.20278168 0.86200005
-0.38268638 -0.20160545 0.85700005
-0.37592164 -0.20231119 0.86000001
-0.3686727 -0.20278168 0.86200005
-0.36054951 -0.20278168 0.86200005
-0.35038206 -0.20160545 0.85700005
-0.34030887 -0.20042923 0.85200006
-0.3318899 -0.20019397 0.85100001
-0.32653439 -0.2018407 0.85800004
-0.32216042 -0.20419315 0.86800003
-0.31578931 -0.20536938 0.87300003
-0.30861938 -0.20607512 0.87600005
-0.30276442 -0.20772183 0.88300002
-0.29544371 -0.20842758 0.88600004
-0.28644627 -0.20795709 0.88400006
-0.27496961 -0.20560461 0.87400001
-0.26398668 -0.20348743 0.86500007
-0.25406063 -0.20207594 0.85900003
-0.24539301 -0.20160545 0.85700005
-0.23759386 -0.2018407 0.85800004
-0.22977583 -0.20207594 0.85900003
-0.22271317 -0.20301692 0.86300004
-0.21607243 -0.20442839 0.86900002
-0.20931861 -0.20583987 0.87500006
-0.20222187 -0.2070161 0.88000005
-0.19414943 -0.20725134 0.88100004
-0.18563624 -0.2070161 0.88000005
-0.17633577 -0.20583987 0.87500006
-0.16866638 -0.20654561 0.87800002
-0.16276722 -0.2096038 0.89100003
-0.15593004 -0.211721 0.90000004
-0.14679343 -0.21078002 0.89600003
-0.13726896 -0.20913331 0.88900006
-0.12773144 -0.20725134 0.88100004
-0.11848027 -0.20560461 0.87400001
-0.10986557 -0.20489889 0.87100005
-0.10177427 -0.20513414 0.87200004
-0.093234964 -0.20442839 0.86900002
-0.084850073 -0.2039579 0.86700004
-0.076679751 -0.2039579 0.86700004
-0.068667471 -0.20442839 0.86900002
-0.060756691 -0.20536938 0.87300003
-0.052710347 -0.20607512 0.87600005
-0.04430297 -0.20536938 0.87300003
-0.035786841 -0.20372267 0.86600006
-0.027466446 -0.20254643 0.86100006
-0.019330194 -0.20231119 0.86000001
-0.011251949 -0.20278168 0.86200005
-0.0031323801 -0.20301692 0.86300004
0.0050176247 -0.20372267 0.86600006
0.013224171 -0.20442839 0.86900002
0.021413336 -0.20442839 0.86900002
0.02953437 -0.2039579 0.86700004
0.037748177 -0.20419315 0.86800003
0.045927916 -0.20419315 0.86800003
0.054045323 -0.2039579 0.86700004
0.062215637 -0.2039579 0.86700004
0.070061222 -0.20301692 0.86300004
0.077740811 -0.2018407 0.85800004
0.085426189 -0.20089971 0.85400003
0.093692914 -0.20137021 0.85600007
0.10235396 -0.20254643 0.86100006
0.11110923 -0.20372267 0.86600006
0.11913241 -0.20348743 0.86500007
0.12654813 -0.20231119 0.86000001
0.13324334 -0.20019397 0.85100001
0.14109688 -0.19995873 0.85000002
0.14980866 -0.20089971 0.85400003
0.15859586 -0.2018407 0.85800004
0.16726416 -0.20254643 0.86100006
0.17537795 -0.20254643 0.86100006
0.18285236 -0.2018407 0.85800004
0.19049279 -0.20137021 0.85600007
0.19716768 -0.19995873 0.85000002
0.20662612 -0.20137021 0.85600007
0.21544518 -0.20207594 0.85900003
0.22458105 -0.20301692 0.86300004
0.23298334 -0.20325217 0.86400002
0.24084629 -0.20301692 0.86300004
0.24840191 -0.20254643 0.86100006
0.25591984 -0.20207594 0.85900003
0.26401475 -0.20207594 0.85900003
0.27274323 -0.20254643 0.86100006
0.28411901 -0.20489889 0.87100005
0.29299822 -0.20536938 0.87300003
0.29984492 -0.20442839 0.86900002
0.30661622 -0.20348743 0.86500007
0.3151316 -0.20372267 0.86600006
0.32590568 -0.20536938 0.87300003
0.33451527 -0.20560461 0.87400001
0.34118292 -0.20466365 0.87000006
0.34616879 -0.20278168 0.86200005
0.35305896 -0.20207594 0.85900003
0.3611539 -0.20207594 0.85900003
0.36924881 -0.20207594 0.85900003
0.37646517 -0.20160545 0.85700005
0.38454127 -0.20160545 0.85700005
0.39261734 -0.20160545 0.85700005
0.40022588 -0.20137021 0.85600007
0.4068616 -0.20066448 0.85300004
0.4144136 -0.20042923 0.85200006
0.4219467 -0.20019397 0.85100001
0.42946097 -0.19995873 0.85000002
0.43747109 -0.19995873 0.85000002
0.4475776 -0.20089971 0.85400003
0.45722598 -0.20160545 0.85700005
0.46584502 -0.2018407 0.85800004
0.47337818 -0.20160545 0.85700005
0.48145425 -0.20160545 0.85700005
0.4912439 -0.20231119 0.86000001
0.50167084 -0.20325217 0.86400002
0.510993 -0.20372267 0.86600006
0.51855445 -0.20348743 0.86500007
0.52487916 -0.20278168 0.86200005
0.52991074 -0.20160545 0.85700005
0.53484803 -0.20042923 0.85200006
0.54032826 -0.19948824 0.84800005
0.5450865 -0.19831201 0.84300005
0.55040658 -0.19737104 0.83900005
0.55897844 -0.19760628 0.84000003
0.5675692 -0.19784151 0.84100002
0.57617885 -0.19807677 0.84200007
0.58480722 -0.19831201 0.84300005
0.59486079 -0.19901775 0.84600002
0.60497093 -0.19972348 0.84900004
0.61297166 -0.19972348 0.84900004
0.62170374 -0.19995873 0.85000002
0.6311956 -0.20042923 0.85200006
0.64072508 -0.20089971 0.85400003
0.6495325 -0.20113495 0.85500002
0.65758973 -0.20113495 0.85500002
0.66486847 -0.20089971 0.85400003
0.67212832 -0.20066448 0.85300004
0.67936933 -0.20042923 0.85200006
0.6857847 -0.19995873 0.85000002
0.69216233 -0.19948824 0.84800005
0.70015359 -0.19948824 0.84800005
0.70814484 -0.19948824 0.84800005
0.7136026 -0.1987825 0.84500003
0.71814996 -0.19784151 0.84100002
0.72607523 -0.19784151 0.84100002
0.73400056 -0.19784151 0.84100002
0.74369025 -0.19831201 0.84300005
0.75163436 -0.19831201 0.84300005
0.75867748 -0.19807677 0.84200007
0.76570171 -0.19784151 0.84100002
0.77362704 -0.19784151 0.84100002
0.78248173 -0.19807677 0.84200007
0.78947759 -0.19784151 0.84100002
0.79455847 -0.19713579 0.83800006
0.80054033 -0.19666529 0.83600003
0.80745149 -0.19643004 0.83500004
0.81532025 -0.19643004 0.83500004
0.82417488 -0.19666529 0.83600003
-0.87421328 -0.1969167 0.87200004
-0.86599576 -0.1969167 0.87200004
-0.85777831 -0.1969167 0.87200004
-0.84956092 -0.1969167 0.87200004
-0.84134346 -0.1969167 0.87200004
-0.83312601 -0.1969167 0.87200004
-0.82490861 -0.1969167 0.87200004
-0.81669116 -0.1969167 0.87200004
-0.80847371 -0.1969167 0.87200004
-0.79658532 -0.19601342 0.86800003
-0.78931397 -0.19623923 0.86900002
-0.78921467 -0.19827163 0.87800002
-0.78716689 -0.19985239 0.88500005
-0.77882695 -0.19985239 0.88500005
-0.76787513 -0.19917493 0.88200003
-0.75525755 -0.19804581 0.87700003
-0.743586 -0.19714253 0.87300003
-0.73114747 -0.19601342 0.86800003
-0.71797025 -0.19465849 0.86200005
-0.70820004 -0.19420683 0.86000001
-0.70172387 -0.19465849 0.86200005
-0.70245165 -0.19714253 0.87300003
-0.70694834 -0.20075569 0.88900006
-0.70800024 -0.20346554 0.90100002
-0.70106226 -0.20391719 0.90300006
-0.69178575 -0.20369136 0.90200007
-0.68252802 -0.20346554 0.90100002
-0.67179304 -0.20278808 0.89800006
-0.65963721 -0.20165896 0.89300007
-0.65049261 -0.20143314 0.89200002
-0.64496601 -0.20233643 0.89600003
-0.64362645 -0.20459464 0.90600002
-0.63929451 -0.20594959 0.91200006
-0.63139164 -0.2061754 0.91300005
-0.6214236 -0.20572376 0.91100007
-0.60947508 -0.20459464 0.90600002
-0.595631 -0.20278808 0.89800006
-0.57932216 -0.2000782 0.88600004
-0.56710619 -0.19872329 0.88000005
-0.55754328 -0.19827163 0.87800002
-0.54614139 -0.19714253 0.87300003
-0.536066 -0.19646506 0.87000006
-0.52665389 -0.19601342 0.86800003
-0.51787692 -0.19578759 0.86700004
-0.50735497 -0.1948843 0.86300004
-0.49806541 -0.19443266 0.86100006
-0.49108973 -0.1948843 0.86300004
-0.48183784 -0.19443266 0.86100006
-0.46987262 -0.1928519 0.85400003
-0.45803943 -0.19127116 0.84700006
-0.44899485 -0.19081952 0.84500003
-0.44364151 -0.19194862 0.85000002
-0.43870646 -0.19330356 0.85600007
-0.43214902 -0.19398102 0.85900003
-0.42207947 -0.19307773 0.85500002
-0.41256952 -0.19240028 0.85200006
-0.40549019 -0.1928519 0.85400003
-0.39744237 -0.1928519 0.85400003
-0.38665879 -0.19149698 0.84800005
-0.37554169 -0.18991622 0.84100002
-0.36805353 -0.19014205 0.84200007
-0.3622573 -0.19127116 0.84700006
-0.35553023 -0.19194862 0.85000002
-0.34711128 -0.1917228 0.84900004
-0.33831176 -0.19127116 0.84700006
-0.33110991 -0.1917228 0.84900004
-0.32501209 -0.1928519 0.85400003
-0.31807774 -0.19352938 0.85700005
-0.31108683 -0.19420683 0.86000001
-0.30403939 -0.1948843 0.86300004
-0.30002138 -0.19759418 0.87500006
-0.29277602 -0.19827163 0.87800002
-0.2832059 -0.19736834 0.87400001
-0.27182353 -0.19511013 0.86400002
-0.26185036 -0.19375519 0.85800004
-0.2525818 -0.1928519 0.85400003
-0.24367496 -0.19217443 0.85100001
-0.23593237 -0.19240028 0.85200006
-0.22817089 -0.19262609 0.85300004
-0.2201325 -0.19262609 0.85300004
-0.21234275 -0.1928519 0.85400003
-0.20501262 -0.19352938 0.85700005
-0.19785573 -0.19443266 0.86100006
-0.18996233 -0.19465849 0.86200005
-0.18162818 -0.19443266 0.86100006
-0.17250676 -0.19330356 0.85600007
-0.16501641 -0.19398102 0.85900003
-0.15874827 -0.19623923 0.86900002
-0.15281144 -0.19917493 0.88200003
-0.14269762 -0.19669089 0.87100005
-0.1327911 -0.19420683 0.86000001
-0.12483175 -0.19443266 0.86100006
-0.11644685 -0.19398102 0.85900003
-0.10809965 -0.19352938 0.85700005
-0.099790134 -0.19307773 0.85500002
-0.091518328 -0.19262609 0.85300004
-0.083675675 -0.19307773 0.85500002
-0.076149099 -0.19443266 0.86100006
-0.068509437 -0.19578759 0.86700004
-0.060687099 -0.1969167 0.87200004
-0.052710347 -0.19781999 0.87600005
-0.044099979 -0.19623923 0.86900002
-0.035414923 -0.19352938 0.85700005
-0.027115539 -0.19194862 0.85000002
-0.019037994 -0.19127116 0.84700006
-0.011043096 -0.19104533 0.84600002
-0.003081565 -0.1917228 0.84900004
0.0049249204 -0.19194862 0.85000002
0.012980688 -0.19262609 0.85300004
0.021142282 -0.19375519 0.85800004
0.02932998 -0.19443266 0.86100006
0.037530735 -0.1948843 0.86300004
0.045663353 -0.1948843 0.86300004
0.053546634 -0.19398102 0.85900003
0.061354522 -0.19307773 0.85500002
0.06916821 -0.19240028 0.85200006
0.076925345 -0.1917228 0.84900004
0.085026063 -0.19194862 0.85000002
0.09358345 -0.19307773 0.85500002
0.10235396 -0.19443266 0.86100006
0.11085263 -0.19511013 0.86400002
0.11816833 -0.19375519 0.85800004
0.12522379 -0.19217443 0.85100001
0.13277362 -0.19149698 0.84800005
0.14059889 -0.19127116 0.84700006
0.14875615 -0.19149698 0.84800005
0.15693226 -0.1917228 0.84900004
0.16512722 -0.19194862 0.85000002
0.17272995 -0.19149698 0.84800005
0.18008187 -0.19081952 0.84500003
0.18737726 -0.19014205 0.84200007
0.19531199 -0.19014205 0.84200007
0.20421225 -0.19104533 0.84600002
0.21419114 -0.1928519 0.85400003
0.22354011 -0.19398102 0.85900003
0.2313654 -0.19375519 0.85800004
0.23749731 -0.19217443 0.85100001
0.24407434 -0.19104533 0.84600002
0.25145093 -0.19059369 0.84400004
0.25971183 -0.19081952 0.84500003
0.26862517 -0.19149698 0.84800005
0.27955222 -0.19352938 0.85700005
0.28997764 -0.19511013 0.86400002
0.2988098 -0.19556178 0.86600006
0.30661622 -0.19533595 0.86500007
0.31367603 -0.19465849 0.86200005
0.32179919 -0.19465849 0.86200005
0.32992241 -0.19465849 0.86200005
0.33726126 -0.19420683 0.86000001
0.34375927 -0.19330356 0.85600007
0.35141492 -0.19307773 0.85500002
0.36073345 -0.19375519 0.85800004
0.36967865 -0.19420683 0.86000001
0.37690446 -0.19375519 0.85800004
0.38364384 -0.19307773 0.85500002
0.38986856 -0.19217443 0.85100001
0.39695299 -0.1917228 0.84900004
0.40304577 -0.19081952 0.84500003
0.410036 -0.19036788 0.84300005
0.41698846 -0.18991622 0.84100002
0.425419 -0.19014205 0.84200007
0.43644178 -0.19149698 0.84800005
0.44705352 -0.19262609 0.85300004
0.4545584 -0.19240028 0.85200006
0.46095854 -0.1917228 0.84900004
0.46730211 -0.19104533 0.84600002
0.47583637 -0.19127116 0.84700006
0.48553178 -0.19194862 0.85000002
0.49586445 -0.1928519 0.85400003
0.50509244 -0.19330356 0.85600007
0.51016164 -0.19217443 0.85100001
0.51391882 -0.19059369 0.84400004
0.51754409 -0.18901293 0.83700001
0.52229291 -0.18788382 0.83200002
0.52949619 -0.187658 0.83100003
0.53732723 -0.187658 0.83100003
0.54581434 -0.18788382 0.83200002
0.55631667 -0.18878712 0.83600003
0.56621945 -0.18946458 0.83900005
0.57549453 -0.18991622 0.84100002
0.58272606 -0.1896904 0.84000003
0.59064198 -0.1896904 0.84000003
0.59855783 -0.1896904 0.84000003
0.60647374 -0.1896904 0.84000003
0.61512101 -0.18991622 0.84100002
0.62526888 -0.19059369 0.84400004
0.6362235 -0.19149698 0.84800005
0.64497441 -0.1917228 0.84900004
0.65066773 -0.19104533 0.84600002
0.6555261 -0.19014205 0.84200007
0.66188484 -0.1896904 0.84000003
0.66980076 -0.1896904 0.84000003
0.67690986 -0.18946458 0.83900005
0.68400002 -0.18923876 0.83800006
0.69024575 -0.18878712 0.83600003
0.69728887 -0.18856129 0.83500004
0.70431316 -0.18833548 0.83400005
0.71131855 -0.18810965 0.83300006
0.72003186 -0.18833548 0.83400005
0.72963667 -0.18878712 0.83600003
0.73927927 -0.18923876 0.83800006
0.74717629 -0.18923876 0.83800006
0.75327122 -0.18878712 0.83600003
0.76023895 -0.18856129 0.83500004
0.76810771 -0.18856129 0.83500004
0.77597648 -0.18856129 0.83500004
0.78196776 -0.18810965 0.83300006
0.78792131 -0.187658 0.83100003
0.79479486 -0.18743218 0.83000004
0.80068249 -0.18698055 0.82800007
0.80946171 -0.18720637 0.82900006
0.82121736 -0.18810965 0.83300006
-0.8621828 -0.18610249 0.86000001
-0.85407835 -0.18610249 0.86000001
-0.84597397 -0.18610249 0.86000001
-0.8378697 -0.18610249 0.86000001
-0.82976532 -0.18610249 0.86000001
-0.821661 -0.18610249 0.86000001
-0.81355661 -0.18610249 0.86000001
-0.80545223 -0.18610249 0.86000001
-0.7973479 -0.18610249 0.86000001
-0.78924352 -0.18610249 0.86000001
-0.77841437 -0.1854533 0.85700005
-0.7703383 -0.1854533 0.85700005
-0.76404107 -0.1858861 0.85900003
-0.75682616 -0.18610249 0.86000001
-0.74872178 -0.18610249 0.86000001
-0.73975629 -0.1858861 0.85900003
-0.73336494 -0.1863189 0.86100006
-0.72525114 -0.1863189 0.86100006
-0.71463859 -0.18566971 0.85800004
-0.70243567 -0.1845877 0.85300004
-0.69439727 -0.1845877 0.85300004
-0.69360065 -0.1865353 0.86200005
-0.69979137 -0.19043046 0.88000005
-0.70092809 -0.19302723 0.89200002
-0.69407493 -0.19346003 0.89400005
-0.68488324 -0.19324364 0.89300007
-0.67495281 -0.19281083 0.89100003
-0.66431206 -0.19216165 0.88800007
-0.65520513 -0.19194524 0.88700002
-0.64903414 -0.19259444 0.89000005
-0.64280659 -0.19324364 0.89300007
-0.63510162 -0.19346003 0.89400005
-0.62737781 -0.19367643 0.89500004
-0.61963516 -0.19389282 0.89600003
-0.61323798 -0.19454202 0.89900005
-0.60274798 -0.19389282 0.89600003
-0.59098798 -0.19281083 0.89100003
-0.5786683 -0.19151245 0.88500005
-0.56775063 -0.19064686 0.88100004
-0.55563825 -0.18934847 0.87500006
-0.543639 -0.18805008 0.86900002
-0.53175282 -0.18675169 0.86300004
-0.52179992 -0.18610249 0.86000001
-0.51070905 -0.18502049 0.85500002
-0.50088811 -0.18437131 0.85200006
-0.49285915 -0.18437131 0.85200006
-0.48539922 -0.1845877 0.85300004
-0.47568196 -0.1839385 0.85000002
-0.46492082 -0.18285652 0.84500003
-0.45425397 -0.18177453 0.84000003
-0.44580674 -0.18155813 0.83900005
-0.43946609 -0.18220733 0.84200007
-0.43204385 -0.18242373 0.84300005
-0.4230935 -0.18199092 0.84100002
-0.41516823 -0.18199092 0.84100002
-0.4067587 -0.18177453 0.84000003
-0.39931759 -0.18199092 0.84100002
-0.39139232 -0.18199092 0.84100002
-0.38164315 -0.18112533 0.83700001
-0.37241593 -0.18047614 0.83400005
-0.36499369 -0.18069254 0.83500004
-0.35883573 -0.18155813 0.83900005
-0.35218409 -0.18220733 0.84200007
-0.3446582 -0.18242373 0.84300005
-0.33671406 -0.18242373 0.84300005
-0.32915992 -0.18264012 0.84400004
-0.32044518 -0.18220733 0.84200007
-0.31176814 -0.18177453 0.84000003
-0.30457574 -0.18220733 0.84200007
-0.29981172 -0.1841549 0.85100001
-0.29624969 -0.18696809 0.86400002
-0.28977492 -0.18805008 0.86900002
-0.28093767 -0.18761729 0.86700004
-0.26930663 -0.1852369 0.85600007
-0.25910369 -0.18372211 0.84900004
-0.24962418 -0.18264012 0.84400004
-0.24109793 -0.18220733 0.84200007
-0.23344013 -0.18242373 0.84300005
-0.22576346 -0.18264012 0.84400004
-0.21780987 -0.18264012 0.84400004
-0.20960766 -0.18242373 0.84300005
-0.20166352 -0.18242373 0.84300005
-0.19394916 -0.18264012 0.84400004
-0.18621597 -0.18285652 0.84500003
-0.17825297 -0.18285652 0.84500003
-0.17008844 -0.18264012 0.84400004
-0.16251908 -0.18307291 0.84600002
-0.15491201 -0.18350571 0.84800005
-0.14640099 -0.18285652 0.84500003
-0.13843799 -0.18285652 0.84500003
-0.13078381 -0.18328932 0.84700006
-0.12309194 -0.18372211 0.84900004
-0.11495569 -0.18350571 0.84800005
-0.10658599 -0.18285652 0.84500003
-0.098389573 -0.18242373 0.84300005
-0.090338141 -0.18220733 0.84200007
-0.082599148 -0.18264012 0.84400004
-0.07499934 -0.18350571 0.84800005
-0.067403167 -0.1845877 0.85300004
-0.059573576 -0.1852369 0.85600007
-0.051567089 -0.1854533 0.85700005
-0.043288011 -0.1845877 0.85300004
-0.034919031 -0.18285652 0.84500003
-0.026828432 -0.18199092 0.84100002
-0.018835701 -0.18134174 0.83800006
-0.010912563 -0.18090893 0.83600003
-0.003041639 -0.18134174 0.83800006
0.00486698 -0.18177453 0.84000003
0.012843729 -0.18264012 0.84400004
0.020969791 -0.1841549 0.85100001
0.029227784 -0.18566971 0.85800004
0.037400268 -0.18610249 0.86000001
0.045398794 -0.18566971 0.85800004
0.052985609 -0.1839385 0.85000002
0.060636923 -0.18285652 0.84500003
0.068599924 -0.18285652 0.84500003
0.076653525 -0.18307291 0.84600002
0.085026063 -0.1839385 0.85000002
0.09358345 -0.18502049 0.85500002
0.10187844 -0.1854533 0.85700005
0.10931301 -0.18437131 0.85200006
0.11665336 -0.18328932 0.84700006
0.12434089 -0.18285652 0.84500003
0.13261704 -0.18328932 0.84700006
0.14093088 -0.18372211 0.84900004
0.14858073 -0.18328932 0.84700006
0.15600805 -0.18264012 0.84400004
0.16357309 -0.18220733 0.84200007
0.17089674 -0.18155813 0.83900005
0.17859007 -0.18134174 0.83800006
0.18604201 -0.18090893 0.83600003
0.19392021 -0.18090893 0.83600003
0.20276393 -0.18177453 0.84000003
0.21218465 -0.18307291 0.84600002
0.22067755 -0.18350571 0.84800005
0.22732055 -0.18242373 0.84300005
0.23303203 -0.18069254 0.83500004
0.24032381 -0.18025975 0.83300006
0.24817373 -0.18025975 0.83300006
0.25663832 -0.18069254 0.83500004
0.26640773 -0.18199092 0.84100002
0.27824742 -0.1845877 0.85300004
0.28897077 -0.1863189 0.86100006
0.29846475 -0.1871845 0.86500007
0.30555281 -0.1865353 0.86200005
0.31222045 -0.18566971 0.85800004
0.3176927 -0.1841549 0.85100001
0.32418129 -0.18328932 0.84700006
0.33137882 -0.18285652 0.84500003
0.34014499 -0.18328932 0.84700006
0.34730479 -0.18285652 0.84500003
0.3561087 -0.18328932 0.84700006
0.36580992 -0.1841549 0.85100001
0.37382945 -0.1841549 0.85100001
0.38050291 -0.18350571 0.84800005
0.38666168 -0.18264012 0.84400004
0.39321256 -0.18199092 0.84100002
0.39970696 -0.18134174 0.83800006
0.40614477 -0.18069254 0.83500004
0.41302189 -0.18025975 0.83300006
0.4203665 -0.18004334 0.83200002
0.43129504 -0.18134174 0.83800006
0.44181257 -0.18242373 0.84300005
0.45029023 -0.18264012 0.84400004
0.45715794 -0.18220733 0.84200007
0.46343556 -0.18155813 0.83900005
0.47021842 -0.18112533 0.83700001
0.4775348 -0.18090893 0.83600003
0.48657426 -0.18134174 0.83800006
0.49447131 -0.18134174 0.83800006
0.49937093 -0.18025975 0.83300006
0.50478518 -0.17939416 0.82900006
0.51012409 -0.17852856 0.82500005
0.51664311 -0.17809576 0.82300001
0.52376157 -0.17787936 0.82200003
0.53021461 -0.17744657 0.82000005
0.54056615 -0.17831217 0.82400006
0.55232394 -0.17961055 0.83000004
